ply
format ascii 1.0
element vertex 613
property float x
property float y
property float z
property uchar red
property uchar green
property uchar blue
element face 0
end_header
0.156813 -1.608336 0.000000 106 63 53
0.198985 -1.608336 0.000000 118 68 55
0.198985 -1.566164 0.000000 51 46 44
0.241156 -1.608336 0.000000 83 54 42
0.241156 -1.566164 0.000000 49 46 32
0.409843 -1.228791 0.000000 55 70 60
0.409843 -1.186620 0.000000 48 34 27
0.452014 -1.228791 0.000000 58 78 57
0.452014 -1.144448 0.000000 58 73 63
0.494186 -1.186620 0.000000 39 31 25
0.494186 -1.144448 0.000000 58 63 47
0.156813 -1.608336 0.042172 121 73 67
0.198985 -1.650508 0.042172 79 65 58
0.198985 -1.608336 0.042172 86 54 42
0.241156 -1.608336 0.042172 92 58 52
0.241156 -1.566164 0.042172 43 39 32
0.283328 -1.566164 0.042172 42 32 24
0.452014 -1.186620 0.042172 52 37 22
0.452014 -1.144448 0.042172 55 72 56
0.494186 -1.186620 0.042172 52 38 27
0.494186 -1.144448 0.042172 58 75 53
0.241156 -1.608336 0.084343 92 60 35
0.241156 -1.566164 0.084343 39 33 24
0.283328 -1.608336 0.084343 107 68 52
0.283328 -1.566164 0.084343 46 34 25
0.452014 -1.186620 0.084343 63 46 34
0.494186 -1.186620 0.084343 76 41 32
0.494186 -1.144448 0.084343 57 74 61
0.241156 -1.608336 0.126515 105 68 52
0.241156 -1.566164 0.126515 46 34 28
0.283328 -1.566164 0.126515 85 55 40
0.494186 -1.186620 0.126515 83 49 38
0.494186 -1.102277 0.126515 59 75 57
0.241156 -1.566164 0.168687 60 43 40
0.283328 -1.566164 0.168687 85 62 44
0.283328 -1.523993 0.168687 54 37 27
0.494186 -1.228791 0.168687 50 33 21
0.494186 -1.144448 0.168687 56 74 60
0.241156 -1.523993 0.210858 43 33 27
0.283328 -1.566164 0.210858 74 58 42
0.283328 -1.523993 0.210858 65 43 28
0.494186 -1.228791 0.210858 55 39 30
0.494186 -1.186620 0.210858 67 54 38
0.241156 -1.523993 0.253030 51 36 28
0.283328 -1.566164 0.253030 69 65 43
0.283328 -1.481821 0.253030 46 33 25
0.452014 -1.228791 0.253030 62 39 30
0.494186 -1.270963 0.253030 24 36 17
0.494186 -1.186620 0.253030 54 70 54
0.241156 -1.523993 0.295201 65 46 33
0.241156 -1.481821 0.295201 46 34 25
0.283328 -1.523993 0.295201 79 52 40
0.283328 -1.439650 0.295201 55 56 60
0.452014 -1.270963 0.295201 22 16 20
0.452014 -1.228791 0.295201 52 30 26
0.494186 -1.313135 0.295201 20 6 3
0.494186 -1.228791 0.295201 23 21 20
0.241156 -1.523993 0.337373 78 53 39
0.241156 -1.481821 0.337373 48 34 31
0.283328 -1.523993 0.337373 71 51 36
0.283328 -1.439650 0.337373 45 42 40
0.452014 -1.313135 0.337373 20 5 6
0.452014 -1.228791 0.337373 45 36 27
0.494186 -1.313135 0.337373 28 8 8
0.494186 -1.228791 0.337373 15 7 13
0.241156 -1.523993 0.379545 71 51 36
0.241156 -1.439650 0.379545 57 57 40
0.283328 -1.523993 0.379545 33 16 12
0.283328 -1.439650 0.379545 31 8 12
0.409843 -1.313135 0.379545 27 4 6
0.409843 -1.270963 0.379545 16 10 11
0.452014 -1.355306 0.379545 28 7 3
0.452014 -1.270963 0.379545 13 6 13
0.494186 -1.355306 0.379545 32 8 9
0.494186 -1.228791 0.379545 19 5 8
0.198985 -1.481821 0.421716 39 26 22
0.241156 -1.523993 0.421716 46 16 12
0.241156 -1.397478 0.421716 48 60 65
0.283328 -1.523993 0.421716 40 10 10
0.283328 -1.439650 0.421716 28 7 7
0.325499 -1.481821 0.421716 45 9 4
0.367671 -1.355306 0.421716 25 8 6
0.409843 -1.397478 0.421716 33 7 6
0.409843 -1.228791 0.421716 24 6 15
0.452014 -1.397478 0.421716 39 7 15
0.452014 -1.270963 0.421716 36 9 13
0.494186 -1.355306 0.421716 35 7 7
0.494186 -1.270963 0.421716 37 7 15
0.198985 -1.481821 0.463888 31 7 8
0.198985 -1.439650 0.463888 46 32 40
0.241156 -1.566164 0.463888 62 33 15
0.241156 -1.355306 0.463888 41 9 7
0.283328 -1.523993 0.463888 61 11 9
0.283328 -1.313135 0.463888 34 8 6
0.325499 -1.523993 0.463888 61 10 10
0.325499 -1.481821 0.463888 47 10 8
0.325499 -1.355306 0.463888 27 6 7
0.325499 -1.270963 0.463888 20 17 15
0.367671 -1.397478 0.463888 33 8 7
0.367671 -1.228791 0.463888 21 8 12
0.409843 -1.439650 0.463888 45 8 6
0.409843 -1.228791 0.463888 18 6 12
0.452014 -1.439650 0.463888 47 9 6
0.452014 -1.186620 0.463888 81 21 27
0.494186 -1.439650 0.463888 55 9 8
0.494186 -1.313135 0.463888 29 6 3
0.198985 -1.481821 0.506060 31 7 10
0.198985 -1.439650 0.506060 29 6 7
0.241156 -1.523993 0.506060 61 12 11
0.241156 -1.355306 0.506060 30 8 6
0.283328 -1.523993 0.506060 61 10 10
0.283328 -1.270963 0.506060 35 14 15
0.325499 -1.523993 0.506060 67 24 35
0.325499 -1.270963 0.506060 16 7 14
0.367671 -1.439650 0.506060 45 10 17
0.367671 -1.228791 0.506060 29 5 10
0.409843 -1.439650 0.506060 47 9 6
0.409843 -1.228791 0.506060 67 13 16
0.452014 -1.439650 0.506060 55 9 8
0.452014 -1.144448 0.506060 46 44 42
0.494186 -1.397478 0.506060 48 9 9
0.494186 -1.186620 0.506060 40 41 40
0.198985 -1.481821 0.548231 39 8 10
0.198985 -1.397478 0.548231 25 4 5
0.241156 -1.523993 0.548231 61 11 8
0.241156 -1.355306 0.548231 24 6 7
0.283328 -1.523993 0.548231 67 24 35
0.283328 -1.313135 0.548231 35 7 10
0.325499 -1.523993 0.548231 59 62 36
0.325499 -1.270963 0.548231 23 8 3
0.367671 -1.481821 0.548231 60 14 4
0.367671 -1.228791 0.548231 78 10 16
0.409843 -1.481821 0.548231 56 10 8
0.409843 -1.186620 0.548231 39 39 38
0.452014 -1.439650 0.548231 53 9 8
0.452014 -1.186620 0.548231 39 34 42
0.494186 -1.439650 0.548231 46 9 5
0.494186 -1.144448 0.548231 42 40 38
0.536358 -1.270963 0.548231 40 13 16
0.536358 -1.228791 0.548231 66 17 10
0.198985 -1.481821 0.590403 42 10 9
0.198985 -1.397478 0.590403 25 6 10
0.241156 -1.481821 0.590403 53 10 12
0.241156 -1.355306 0.590403 28 7 8
0.283328 -1.523993 0.590403 54 31 36
0.283328 -1.313135 0.590403 37 9 8
0.325499 -1.481821 0.590403 60 13 4
0.325499 -1.270963 0.590403 29 8 12
0.367671 -1.481821 0.590403 55 11 6
0.367671 -1.228791 0.590403 64 11 13
0.409843 -1.481821 0.590403 54 10 4
0.409843 -1.228791 0.590403 56 21 31
0.452014 -1.439650 0.590403 46 9 5
0.452014 -1.186620 0.590403 40 36 33
0.494186 -1.439650 0.590403 42 10 8
0.494186 -1.228791 0.590403 73 43 59
0.198985 -1.481821 0.632574 46 9 12
0.198985 -1.397478 0.632574 26 9 8
0.241156 -1.481821 0.632574 56 11 9
0.241156 -1.355306 0.632574 25 6 4
0.283328 -1.481821 0.632574 60 13 13
0.283328 -1.313135 0.632574 35 9 2
0.325499 -1.481821 0.632574 53 10 6
0.325499 -1.270963 0.632574 42 8 31
0.367671 -1.481821 0.632574 51 10 8
0.367671 -1.228791 0.632574 39 40 37
0.409843 -1.481821 0.632574 47 9 7
0.409843 -1.228791 0.632574 56 31 29
0.452014 -1.481821 0.632574 45 12 14
0.452014 -1.228791 0.632574 87 78 59
0.494186 -1.439650 0.632574 44 9 8
0.494186 -1.270963 0.632574 48 13 16
0.156813 -1.397478 0.674746 26 7 6
0.198985 -1.481821 0.674746 50 11 9
0.198985 -1.355306 0.674746 25 4 4
0.241156 -1.481821 0.674746 60 13 13
0.241156 -1.313135 0.674746 89 21 19
0.283328 -1.481821 0.674746 53 10 6
0.283328 -1.270963 0.674746 42 12 15
0.325499 -1.481821 0.674746 52 9 8
0.325499 -1.270963 0.674746 46 5 13
0.367671 -1.481821 0.674746 45 9 7
0.367671 -1.270963 0.674746 47 10 16
0.409843 -1.481821 0.674746 42 8 14
0.409843 -1.270963 0.674746 48 11 17
0.452014 -1.481821 0.674746 42 10 9
0.452014 -1.228791 0.674746 88 92 76
0.494186 -1.439650 0.674746 44 6 0
0.494186 -1.313135 0.674746 31 7 7
0.156813 -1.397478 0.716918 30 6 12
0.198985 -1.481821 0.716918 52 9 13
0.198985 -1.355306 0.716918 29 6 6
0.241156 -1.481821 0.716918 53 10 7
0.241156 -1.313135 0.716918 136 55 47
0.283328 -1.481821 0.716918 52 9 8
0.283328 -1.270963 0.716918 46 12 12
0.325499 -1.481821 0.716918 47 8 7
0.325499 -1.270963 0.716918 60 9 16
0.367671 -1.481821 0.716918 42 7 4
0.367671 -1.270963 0.716918 62 13 17
0.409843 -1.481821 0.716918 43 8 9
0.409843 -1.270963 0.716918 61 9 10
0.452014 -1.481821 0.716918 40 8 2
0.452014 -1.270963 0.716918 44 9 11
0.494186 -1.439650 0.716918 43 8 6
0.494186 -1.313135 0.716918 29 6 6
0.156813 -1.397478 0.759089 35 8 6
0.156813 -1.355306 0.759089 26 6 1
0.198985 -1.481821 0.759089 55 9 7
0.198985 -1.313135 0.759089 146 88 73
0.241156 -1.481821 0.759089 52 10 5
0.241156 -1.270963 0.759089 67 16 14
0.283328 -1.481821 0.759089 47 8 7
0.283328 -1.270963 0.759089 60 14 12
0.325499 -1.481821 0.759089 42 7 4
0.325499 -1.270963 0.759089 66 9 17
0.367671 -1.481821 0.759089 43 9 7
0.367671 -1.270963 0.759089 61 15 15
0.409843 -1.523993 0.759089 58 60 38
0.409843 -1.270963 0.759089 52 11 14
0.452014 -1.481821 0.759089 39 9 1
0.452014 -1.270963 0.759089 56 16 17
0.494186 -1.439650 0.759089 43 8 7
0.494186 -1.313135 0.759089 30 6 5
0.156813 -1.397478 0.801261 38 7 8
0.156813 -1.355306 0.801261 27 7 5
0.198985 -1.481821 0.801261 53 9 9
0.198985 -1.313135 0.801261 197 112 84
0.241156 -1.481821 0.801261 47 7 10
0.241156 -1.270963 0.801261 66 23 28
0.283328 -1.481821 0.801261 40 7 6
0.283328 -1.270963 0.801261 74 17 7
0.325499 -1.481821 0.801261 43 6 12
0.325499 -1.270963 0.801261 66 12 15
0.367671 -1.481821 0.801261 41 10 15
0.367671 -1.270963 0.801261 52 16 8
0.409843 -1.523993 0.801261 58 61 41
0.409843 -1.270963 0.801261 67 12 17
0.452014 -1.481821 0.801261 39 8 8
0.452014 -1.270963 0.801261 68 19 7
0.494186 -1.481821 0.801261 39 7 2
0.494186 -1.355306 0.801261 35 8 6
-0.264903 -1.355306 0.843433 69 48 41
-0.222732 -1.355306 0.843433 124 63 47
-0.180560 -1.313135 0.843433 143 63 55
0.156813 -1.397478 0.843433 37 8 5
0.156813 -1.355306 0.843433 29 6 9
0.198985 -1.439650 0.843433 48 10 2
0.198985 -1.313135 0.843433 190 109 86
0.241156 -1.481821 0.843433 40 7 6
0.241156 -1.270963 0.843433 74 58 73
0.283328 -1.523993 0.843433 50 60 50
0.283328 -1.270963 0.843433 89 44 33
0.325499 -1.523993 0.843433 41 29 17
0.325499 -1.270963 0.843433 80 60 73
0.367671 -1.481821 0.843433 37 8 6
0.367671 -1.270963 0.843433 67 22 34
0.409843 -1.523993 0.843433 26 18 12
0.409843 -1.270963 0.843433 91 20 7
0.452014 -1.481821 0.843433 39 10 6
0.452014 -1.313135 0.843433 25 5 8
0.494186 -1.439650 0.843433 39 7 7
0.494186 -1.355306 0.843433 27 4 8
-0.222732 -1.355306 0.885604 124 64 59
-0.222732 -1.313135 0.885604 142 76 72
-0.180560 -1.355306 0.885604 99 68 52
-0.180560 -1.313135 0.885604 183 110 86
-0.138389 -1.355306 0.885604 33 39 23
-0.138389 -1.313135 0.885604 230 133 92
0.156813 -1.397478 0.885604 40 8 7
0.156813 -1.355306 0.885604 28 6 5
0.198985 -1.439650 0.885604 43 9 6
0.198985 -1.313135 0.885604 159 99 73
0.241156 -1.523993 0.885604 41 39 36
0.241156 -1.270963 0.885604 86 91 77
0.283328 -1.523993 0.885604 41 22 9
0.283328 -1.270963 0.885604 92 92 73
0.325499 -1.523993 0.885604 38 36 40
0.325499 -1.270963 0.885604 92 103 83
0.367671 -1.523993 0.885604 29 6 0
0.367671 -1.270963 0.885604 98 99 82
0.409843 -1.523993 0.885604 27 6 9
0.409843 -1.270963 0.885604 102 102 80
0.452014 -1.481821 0.885604 36 7 8
0.452014 -1.313135 0.885604 25 7 6
0.494186 -1.439650 0.885604 45 12 7
0.494186 -1.355306 0.885604 35 6 6
-0.138389 -1.313135 0.927776 240 143 111
-0.096217 -1.313135 0.927776 230 136 106
-0.054045 -1.355306 0.927776 53 11 18
-0.054045 -1.313135 0.927776 227 133 103
0.156813 -1.397478 0.927776 39 9 4
0.198985 -1.439650 0.927776 45 9 6
0.198985 -1.313135 0.927776 133 76 61
0.241156 -1.481821 0.927776 37 8 5
0.241156 -1.313135 0.927776 115 72 61
0.283328 -1.523993 0.927776 35 16 7
0.283328 -1.313135 0.927776 95 24 11
0.325499 -1.523993 0.927776 29 6 0
0.325499 -1.270963 0.927776 100 110 85
0.367671 -1.523993 0.927776 27 7 5
0.367671 -1.270963 0.927776 102 104 88
0.409843 -1.481821 0.927776 35 7 8
0.409843 -1.313135 0.927776 25 6 6
0.452014 -1.481821 0.927776 50 11 9
0.452014 -1.313135 0.927776 13 5 6
0.494186 -1.439650 0.927776 38 5 0
0.494186 -1.397478 0.927776 58 10 9
-0.054045 -1.313135 0.969948 215 130 105
-0.011874 -1.355306 0.969948 146 71 47
-0.011874 -1.313135 0.969948 223 135 104
0.030298 -1.355306 0.969948 115 32 21
0.030298 -1.313135 0.969948 230 132 104
0.198985 -1.439650 0.969948 42 8 6
0.198985 -1.355306 0.969948 29 6 4
0.241156 -1.523993 0.969948 38 7 7
0.241156 -1.313135 0.969948 87 48 54
0.283328 -1.523993 0.969948 30 6 9
0.283328 -1.313135 0.969948 51 8 5
0.325499 -1.523993 0.969948 39 6 5
0.325499 -1.313135 0.969948 31 7 6
0.367671 -1.523993 0.969948 28 6 7
0.367671 -1.313135 0.969948 25 6 3
0.409843 -1.481821 0.969948 67 11 9
0.409843 -1.313135 0.969948 12 2 5
0.452014 -1.481821 0.969948 59 10 12
0.452014 -1.355306 0.969948 46 7 8
0.030298 -1.355306 1.012119 144 59 50
0.030298 -1.270963 1.012119 97 34 33
0.072470 -1.355306 1.012119 65 29 46
0.072470 -1.313135 1.012119 114 61 50
0.198985 -1.439650 1.012119 46 8 7
0.198985 -1.355306 1.012119 28 7 4
0.241156 -1.523993 1.012119 41 7 7
0.241156 -1.313135 1.012119 51 10 15
0.283328 -1.523993 1.012119 39 8 8
0.283328 -1.313135 1.012119 49 6 8
0.325499 -1.523993 1.012119 37 3 4
0.325499 -1.313135 1.012119 25 6 4
0.367671 -1.523993 1.012119 23 4 9
0.367671 -1.313135 1.012119 22 10 10
0.409843 -1.481821 1.012119 59 10 7
0.409843 -1.355306 1.012119 49 8 6
0.452014 -1.439650 1.012119 53 9 12
0.452014 -1.397478 1.012119 68 11 14
0.072470 -1.355306 1.054291 32 7 5
0.072470 -1.313135 1.054291 114 65 43
0.114641 -1.313135 1.054291 135 82 62
0.114641 -1.270963 1.054291 73 46 45
0.156813 -1.481821 1.054291 45 9 7
0.156813 -1.439650 1.054291 45 7 7
0.198985 -1.439650 1.054291 43 8 7
0.198985 -1.355306 1.054291 28 5 4
0.241156 -1.523993 1.054291 45 8 8
0.241156 -1.355306 1.054291 26 6 7
0.283328 -1.566164 1.054291 51 24 11
0.283328 -1.313135 1.054291 17 5 4
0.325499 -1.523993 1.054291 34 5 9
0.325499 -1.313135 1.054291 28 19 15
0.367671 -1.523993 1.054291 72 12 9
0.367671 -1.355306 1.054291 65 11 10
0.409843 -1.481821 1.054291 48 7 7
0.409843 -1.355306 1.054291 64 11 7
0.452014 -1.439650 1.054291 104 16 14
0.072470 -1.313135 1.096462 137 82 63
0.072470 -1.270963 1.096462 71 64 45
0.114641 -1.439650 1.096462 45 8 6
0.114641 -1.313135 1.096462 136 79 61
0.114641 -1.270963 1.096462 90 51 36
0.156813 -1.481821 1.096462 37 4 9
0.156813 -1.397478 1.096462 34 5 6
0.156813 -1.270963 1.096462 101 63 53
0.198985 -1.523993 1.096462 45 8 7
0.198985 -1.355306 1.096462 25 4 11
0.241156 -1.523993 1.096462 30 5 6
0.241156 -1.313135 1.096462 18 6 13
0.283328 -1.523993 1.096462 34 6 7
0.283328 -1.313135 1.096462 34 16 10
0.325499 -1.523993 1.096462 43 10 16
0.325499 -1.355306 1.096462 66 11 7
0.367671 -1.523993 1.096462 34 9 8
0.367671 -1.355306 1.096462 64 12 6
0.409843 -1.481821 1.096462 94 54 68
0.409843 -1.355306 1.096462 71 10 7
0.072470 -1.270963 1.138634 72 42 31
0.114641 -1.397478 1.138634 39 8 8
0.114641 -1.270963 1.138634 101 61 43
0.156813 -1.439650 1.138634 34 5 6
0.156813 -1.270963 1.138634 118 74 59
0.198985 -1.523993 1.138634 47 7 6
0.198985 -1.313135 1.138634 28 9 10
0.241156 -1.523993 1.138634 29 6 7
0.241156 -1.270963 1.138634 107 119 89
0.283328 -1.523993 1.138634 63 14 16
0.283328 -1.313135 1.138634 72 18 13
0.325499 -1.523993 1.138634 31 7 8
0.325499 -1.313135 1.138634 92 16 12
0.367671 -1.523993 1.138634 64 16 8
0.367671 -1.313135 1.138634 79 13 7
0.409843 -1.481821 1.138634 57 12 9
0.409843 -1.355306 1.138634 81 13 16
0.114641 -1.355306 1.180806 25 6 5
0.114641 -1.228791 1.180806 63 42 51
0.156813 -1.439650 1.180806 33 7 8
0.156813 -1.228791 1.180806 89 52 49
0.198985 -1.481821 1.180806 24 5 7
0.198985 -1.228791 1.180806 110 63 49
0.241156 -1.523993 1.180806 59 13 9
0.241156 -1.270963 1.180806 112 123 92
0.283328 -1.523993 1.180806 31 7 9
0.283328 -1.270963 1.180806 111 119 100
0.325499 -1.523993 1.180806 64 25 10
0.325499 -1.313135 1.180806 62 11 9
0.367671 -1.523993 1.180806 57 12 8
0.367671 -1.313135 1.180806 54 10 7
0.409843 -1.481821 1.180806 41 7 8
0.409843 -1.355306 1.180806 207 130 104
0.114641 -1.355306 1.222977 22 10 10
0.114641 -1.228791 1.222977 86 48 16
0.156813 -1.439650 1.222977 81 11 11
0.156813 -1.228791 1.222977 109 67 47
0.198985 -1.481821 1.222977 48 9 11
0.198985 -1.228791 1.222977 164 96 78
0.241156 -1.523993 1.222977 40 9 6
0.241156 -1.228791 1.222977 113 127 103
0.283328 -1.523993 1.222977 47 8 9
0.283328 -1.270963 1.222977 119 121 102
0.325499 -1.523993 1.222977 68 22 11
0.325499 -1.270963 1.222977 124 132 103
0.367671 -1.481821 1.222977 42 6 9
0.367671 -1.313135 1.222977 112 62 46
0.409843 -1.439650 1.222977 71 10 12
0.409843 -1.355306 1.222977 209 119 100
0.114641 -1.355306 1.265149 37 18 18
0.114641 -1.228791 1.265149 110 66 52
0.156813 -1.439650 1.265149 74 12 9
0.156813 -1.228791 1.265149 169 98 78
0.198985 -1.481821 1.265149 93 16 22
0.198985 -1.228791 1.265149 158 85 63
0.241156 -1.481821 1.265149 45 9 8
0.241156 -1.228791 1.265149 119 130 104
0.283328 -1.523993 1.265149 59 21 11
0.283328 -1.228791 1.265149 122 124 106
0.325499 -1.481821 1.265149 43 12 8
0.325499 -1.270963 1.265149 128 138 111
0.367671 -1.481821 1.265149 66 9 8
0.367671 -1.270963 1.265149 129 132 114
0.409843 -1.439650 1.265149 100 16 14
0.409843 -1.313135 1.265149 107 57 50
0.156813 -1.397478 1.307321 60 11 8
0.156813 -1.228791 1.307321 97 28 11
0.198985 -1.439650 1.307321 228 149 122
0.198985 -1.228791 1.307321 65 11 6
0.241156 -1.481821 1.307321 64 10 6
0.241156 -1.228791 1.307321 123 134 101
0.283328 -1.523993 1.307321 68 65 65
0.283328 -1.228791 1.307321 127 129 107
0.325499 -1.481821 1.307321 61 13 7
0.325499 -1.228791 1.307321 128 133 112
0.367671 -1.481821 1.307321 64 38 38
0.367671 -1.270963 1.307321 67 40 36
0.409843 -1.439650 1.307321 132 20 18
0.409843 -1.313135 1.307321 199 137 104
0.156813 -1.270963 1.349492 47 9 4
0.198985 -1.397478 1.349492 225 138 103
0.198985 -1.228791 1.349492 57 11 11
0.241156 -1.397478 1.349492 227 146 111
0.241156 -1.228791 1.349492 125 129 108
0.283328 -1.439650 1.349492 71 15 10
0.283328 -1.228791 1.349492 128 136 113
0.325499 -1.481821 1.349492 77 40 37
0.325499 -1.228791 1.349492 133 143 103
0.367671 -1.439650 1.349492 108 20 14
0.367671 -1.270963 1.349492 167 97 61
0.409843 -1.397478 1.349492 83 16 13
0.409843 -1.270963 1.349492 203 155 113
0.198985 -1.313135 1.391664 129 79 62
0.198985 -1.270963 1.391664 107 54 33
0.241156 -1.355306 1.391664 235 131 96
0.241156 -1.228791 1.391664 131 131 113
0.283328 -1.397478 1.391664 105 17 12
0.283328 -1.228791 1.391664 122 146 111
0.325499 -1.439650 1.391664 100 39 21
0.325499 -1.228791 1.391664 80 76 50
0.367671 -1.397478 1.391664 79 11 10
0.367671 -1.270963 1.391664 141 137 117
0.409843 -1.397478 1.391664 163 107 94
0.409843 -1.270963 1.391664 139 155 115
0.452014 -1.397478 1.391664 85 82 74
0.452014 -1.355306 1.391664 255 198 156
0.494186 -1.397478 1.391664 102 66 56
0.494186 -1.355306 1.391664 255 196 162
0.536358 -1.397478 1.391664 183 91 82
0.114641 -1.313135 1.433836 79 53 41
0.114641 -1.270963 1.433836 47 26 16
0.156813 -1.313135 1.433836 111 67 43
0.156813 -1.228791 1.433836 77 48 38
0.198985 -1.313135 1.433836 133 87 69
0.198985 -1.228791 1.433836 35 15 14
0.241156 -1.355306 1.433836 255 163 134
0.241156 -1.228791 1.433836 101 128 115
0.283328 -1.355306 1.433836 97 15 11
0.283328 -1.270963 1.433836 233 160 110
0.325499 -1.355306 1.433836 85 14 7
0.325499 -1.270963 1.433836 142 146 114
0.367671 -1.397478 1.433836 209 104 84
0.367671 -1.270963 1.433836 147 160 121
0.409843 -1.397478 1.433836 90 72 61
0.409843 -1.270963 1.433836 150 160 134
0.452014 -1.397478 1.433836 208 110 76
0.452014 -1.313135 1.433836 255 174 116
0.494186 -1.439650 1.433836 70 84 73
0.494186 -1.355306 1.433836 255 206 158
0.536358 -1.439650 1.433836 89 75 59
0.536358 -1.397478 1.433836 255 179 138
0.578529 -1.439650 1.433836 133 75 66
0.578529 -1.397478 1.433836 255 206 159
0.620701 -1.439650 1.433836 202 114 101
0.072470 -1.313135 1.476007 80 41 25
0.072470 -1.270963 1.476007 69 40 31
0.114641 -1.313135 1.476007 145 73 61
0.114641 -1.228791 1.476007 68 40 21
0.156813 -1.313135 1.476007 145 85 75
0.156813 -1.186620 1.476007 32 27 27
0.198985 -1.313135 1.476007 201 128 103
0.198985 -1.144448 1.476007 21 12 10
0.241156 -1.313135 1.476007 136 60 58
0.241156 -1.228791 1.476007 215 123 79
0.283328 -1.313135 1.476007 167 93 87
0.283328 -1.270963 1.476007 143 146 120
0.367671 -1.355306 1.476007 255 201 156
0.409843 -1.355306 1.476007 255 221 176
0.409843 -1.313135 1.476007 88 99 100
0.452014 -1.397478 1.476007 255 180 146
0.452014 -1.355306 1.476007 255 204 136
0.494186 -1.397478 1.476007 255 211 156
0.494186 -1.355306 1.476007 64 82 79
0.536358 -1.439650 1.476007 209 119 110
0.536358 -1.397478 1.476007 255 204 164
0.578529 -1.439650 1.476007 255 167 121
0.578529 -1.397478 1.476007 255 170 102
0.620701 -1.481821 1.476007 119 77 66
0.620701 -1.397478 1.476007 96 119 100
0.662872 -1.481821 1.476007 159 99 94
0.662872 -1.439650 1.476007 255 206 168
0.705044 -1.481821 1.476007 203 107 70
0.705044 -1.439650 1.476007 255 210 171
0.072470 -1.313135 1.518179 128 66 51
0.072470 -1.228791 1.518179 53 28 19
0.114641 -1.313135 1.518179 170 112 83
0.114641 -1.186620 1.518179 25 18 20
0.156813 -1.313135 1.518179 228 139 96
0.156813 -1.144448 1.518179 23 15 13
0.198985 -1.313135 1.518179 159 80 70
0.198985 -1.144448 1.518179 21 13 11
0.241156 -1.313135 1.518179 85 48 48
0.241156 -1.144448 1.518179 82 64 44
0.283328 -1.270963 1.518179 150 148 126
0.283328 -1.144448 1.518179 214 121 82
0.325499 -1.228791 1.518179 151 150 125
0.662872 -1.481821 1.518179 233 157 141
0.662872 -1.439650 1.518179 255 202 167
0.705044 -1.481821 1.518179 255 160 137
0.705044 -1.439650 1.518179 255 212 170
0.747216 -1.481821 1.518179 255 161 136
0.747216 -1.439650 1.518179 251 182 139
0.789387 -1.481821 1.518179 255 161 137
0.072470 -1.270963 1.560350 117 68 71
0.072470 -1.228791 1.560350 106 64 33
0.114641 -1.313135 1.560350 158 121 97
0.114641 -1.144448 1.560350 42 40 63
0.156813 -1.313135 1.560350 79 63 60
0.156813 -1.144448 1.560350 29 23 19
0.198985 -1.313135 1.560350 87 50 27
0.198985 -1.144448 1.560350 32 22 22
0.241156 -1.313135 1.560350 74 82 70
0.241156 -1.144448 1.560350 184 144 124
0.283328 -1.270963 1.560350 148 152 134
0.283328 -1.144448 1.560350 139 153 116
0.325499 -1.270963 1.560350 157 167 142
0.325499 -1.228791 1.560350 155 153 137
0.747216 -1.481821 1.560350 255 194 155
0.789387 -1.523993 1.560350 78 59 56
0.789387 -1.481821 1.560350 255 198 162
0.831559 -1.523993 1.560350 150 98 58
0.831559 -1.481821 1.560350 255 192 150
0.873731 -1.523993 1.560350 189 96 84
0.915902 -1.566164 1.560350 127 123 54
0.915902 -1.523993 1.560350 255 183 156
0.072470 -1.228791 1.602522 51 39 35
0.072470 -1.186620 1.602522 20 17 9
0.114641 -1.270963 1.602522 193 97 57
0.114641 -1.186620 1.602522 28 19 21
0.156813 -1.313135 1.602522 44 24 20
0.156813 -1.144448 1.602522 56 40 52
0.198985 -1.313135 1.602522 73 81 72
0.198985 -1.144448 1.602522 53 54 64
0.241156 -1.270963 1.602522 153 155 132
0.241156 -1.144448 1.602522 138 142 116
0.283328 -1.270963 1.602522 154 166 140
0.283328 -1.144448 1.602522 142 141 123
0.325499 -1.228791 1.602522 154 166 130
0.325499 -1.186620 1.602522 150 148 131
0.831559 -1.523993 1.602522 255 179 133
0.873731 -1.566164 1.602522 190 90 101
0.873731 -1.523993 1.602522 255 185 153
0.915902 -1.608336 1.602522 135 94 65
0.915902 -1.523993 1.602522 255 170 146
0.114641 -1.228791 1.644694 40 30 26
0.156813 -1.270963 1.644694 47 33 38
0.156813 -1.228791 1.644694 32 25 22
0.198985 -1.270963 1.644694 50 35 21
0.198985 -1.228791 1.644694 40 29 26
