ply
format ascii 1.0
element vertex 1231
property float x
property float y
property float z
property uchar red
property uchar green
property uchar blue
element face 0
end_header
0.279556 -1.551499 1.037440 46 45 20
0.279556 -1.316607 1.037440 26 7 7
0.299130 -1.551499 1.037440 28 15 5
0.299130 -1.316607 1.037440 25 6 4
0.318705 -1.551499 1.037440 36 7 10
0.318705 -1.316607 1.037440 19 9 3
0.338279 -1.551499 1.037440 59 16 11
0.338279 -1.316607 1.037440 28 14 10
0.357853 -1.531925 1.037440 26 6 9
0.357853 -1.316607 1.037440 29 17 10
0.377428 -1.531925 1.037440 76 13 13
0.377428 -1.316607 1.037440 37 20 14
0.397002 -1.512350 1.037440 43 5 6
0.397002 -1.316607 1.037440 55 11 13
0.416576 -1.492776 1.037440 48 8 7
0.416576 -1.355756 1.037440 67 12 11
0.436151 -1.473202 1.037440 31 6 6
0.436151 -1.375330 1.037440 75 15 9
0.455725 -1.434053 1.037440 57 11 0
0.455725 -1.414479 1.037440 67 9 10
0.044664 -1.297033 1.057014 90 58 43
0.064238 -1.375330 1.057014 31 7 1
0.064238 -1.277458 1.057014 73 84 78
0.083813 -1.355756 1.057014 35 7 7
0.083813 -1.277458 1.057014 72 49 39
0.103387 -1.336181 1.057014 115 72 61
0.103387 -1.277458 1.057014 73 45 34
0.122961 -1.473202 1.057014 43 7 11
0.122961 -1.453627 1.057014 46 7 6
0.122961 -1.316607 1.057014 135 82 64
0.122961 -1.277458 1.057014 93 57 34
0.142536 -1.492776 1.057014 41 11 6
0.142536 -1.434053 1.057014 46 7 7
0.162110 -1.512350 1.057014 37 7 7
0.162110 -1.414479 1.057014 44 8 1
0.181684 -1.492776 1.057014 38 7 6
0.181684 -1.375330 1.057014 29 6 5
0.201259 -1.473202 1.057014 39 7 9
0.201259 -1.355756 1.057014 28 6 4
0.220833 -1.492776 1.057014 42 8 6
0.220833 -1.336181 1.057014 28 6 7
0.240407 -1.531925 1.057014 39 7 0
0.240407 -1.336181 1.057014 22 5 0
0.259982 -1.551499 1.057014 46 25 14
0.259982 -1.316607 1.057014 41 8 2
0.279556 -1.551499 1.057014 21 7 4
0.279556 -1.316607 1.057014 17 5 4
0.299130 -1.551499 1.057014 36 7 10
0.299130 -1.316607 1.057014 19 7 10
0.318705 -1.551499 1.057014 59 16 14
0.318705 -1.316607 1.057014 28 14 12
0.338279 -1.551499 1.057014 65 12 16
0.338279 -1.316607 1.057014 29 14 10
0.357853 -1.531925 1.057014 76 15 12
0.357853 -1.336181 1.057014 45 12 10
0.377428 -1.512350 1.057014 63 5 6
0.377428 -1.336181 1.057014 63 11 10
0.397002 -1.512350 1.057014 59 13 9
0.397002 -1.336181 1.057014 63 11 8
0.416576 -1.492776 1.057014 58 11 11
0.416576 -1.355756 1.057014 64 11 6
0.436151 -1.473202 1.057014 80 26 5
0.436151 -1.375330 1.057014 64 10 10
0.044664 -1.297033 1.076589 84 50 39
0.064238 -1.336181 1.076589 130 76 62
0.064238 -1.277458 1.076589 72 60 60
0.083813 -1.355756 1.076589 34 8 4
0.083813 -1.277458 1.076589 73 49 34
0.103387 -1.453627 1.076589 46 7 6
0.103387 -1.336181 1.076589 107 58 65
0.103387 -1.277458 1.076589 79 51 40
0.122961 -1.473202 1.076589 46 10 10
0.122961 -1.434053 1.076589 46 7 7
0.122961 -1.316607 1.076589 134 78 65
0.122961 -1.257884 1.076589 70 50 61
0.142536 -1.473202 1.076589 43 6 6
0.142536 -1.414479 1.076589 34 7 1
0.142536 -1.297033 1.076589 137 79 63
0.142536 -1.257884 1.076589 72 42 31
0.162110 -1.512350 1.076589 41 5 7
0.162110 -1.394904 1.076589 32 5 9
0.181684 -1.531925 1.076589 35 8 1
0.181684 -1.375330 1.076589 31 7 4
0.201259 -1.531925 1.076589 39 7 8
0.201259 -1.355756 1.076589 27 6 6
0.220833 -1.512350 1.076589 41 9 8
0.220833 -1.336181 1.076589 22 6 2
0.240407 -1.531925 1.076589 37 3 7
0.240407 -1.297033 1.076589 68 60 52
0.259982 -1.551499 1.076589 21 7 4
0.259982 -1.297033 1.076589 40 8 18
0.279556 -1.551499 1.076589 36 10 8
0.279556 -1.316607 1.076589 27 11 13
0.299130 -1.551499 1.076589 59 16 14
0.299130 -1.316607 1.076589 28 19 15
0.318705 -1.551499 1.076589 65 12 16
0.318705 -1.316607 1.076589 29 14 10
0.338279 -1.551499 1.076589 60 12 10
0.338279 -1.316607 1.076589 38 20 18
0.357853 -1.531925 1.076589 58 13 10
0.357853 -1.336181 1.076589 63 12 6
0.377428 -1.531925 1.076589 48 9 10
0.377428 -1.336181 1.076589 64 12 8
0.397002 -1.512350 1.076589 42 6 6
0.397002 -1.336181 1.076589 78 12 8
0.416576 -1.492776 1.076589 40 8 13
0.416576 -1.355756 1.076589 66 10 8
0.436151 -1.473202 1.076589 114 88 68
0.436151 -1.394904 1.076589 77 13 12
0.044664 -1.297033 1.096163 78 48 33
0.064238 -1.316607 1.096163 129 74 62
0.064238 -1.277458 1.096163 73 52 58
0.083813 -1.355756 1.096163 35 8 6
0.083813 -1.277458 1.096163 79 49 31
0.103387 -1.336181 1.096163 87 34 46
0.103387 -1.257884 1.096163 72 65 61
0.122961 -1.453627 1.096163 43 7 14
0.122961 -1.414479 1.096163 34 9 4
0.122961 -1.336181 1.096163 61 8 6
0.122961 -1.257884 1.096163 70 49 31
0.142536 -1.473202 1.096163 32 8 6
0.142536 -1.394904 1.096163 32 6 6
0.142536 -1.316607 1.096163 124 67 49
0.142536 -1.257884 1.096163 74 45 31
0.162110 -1.492776 1.096163 38 8 9
0.162110 -1.375330 1.096163 31 7 6
0.162110 -1.257884 1.096163 80 53 43
0.181684 -1.531925 1.096163 39 7 8
0.181684 -1.355756 1.096163 24 5 6
0.201259 -1.531925 1.096163 39 7 4
0.201259 -1.336181 1.096163 28 4 5
0.220833 -1.531925 1.096163 37 3 7
0.220833 -1.316607 1.096163 26 18 37
0.240407 -1.551499 1.096163 21 9 1
0.240407 -1.297033 1.096163 40 12 18
0.259982 -1.551499 1.096163 36 10 8
0.259982 -1.297033 1.096163 41 25 14
0.279556 -1.551499 1.096163 67 12 10
0.279556 -1.297033 1.096163 51 28 21
0.299130 -1.551499 1.096163 65 12 11
0.299130 -1.316607 1.096163 29 18 17
0.318705 -1.551499 1.096163 60 12 10
0.318705 -1.316607 1.096163 38 24 20
0.338279 -1.551499 1.096163 69 28 13
0.338279 -1.316607 1.096163 77 12 12
0.357853 -1.531925 1.096163 48 10 15
0.357853 -1.336181 1.096163 64 12 8
0.377428 -1.512350 1.096163 31 6 6
0.377428 -1.336181 1.096163 78 15 11
0.397002 -1.492776 1.096163 40 10 9
0.397002 -1.336181 1.096163 93 11 11
0.416576 -1.492776 1.096163 52 13 4
0.416576 -1.375330 1.096163 69 14 9
0.436151 -1.473202 1.096163 43 11 14
0.436151 -1.394904 1.096163 98 19 10
0.064238 -1.316607 1.115737 136 83 58
0.064238 -1.277458 1.115737 79 49 31
0.083813 -1.336181 1.115737 127 66 46
0.083813 -1.257884 1.115737 72 78 79
0.103387 -1.336181 1.115737 61 22 39
0.103387 -1.257884 1.115737 70 49 31
0.122961 -1.414479 1.115737 32 10 5
0.122961 -1.394904 1.115737 34 6 6
0.122961 -1.336181 1.115737 51 8 6
0.122961 -1.257884 1.115737 64 40 31
0.142536 -1.473202 1.115737 39 8 8
0.142536 -1.375330 1.115737 31 5 16
0.142536 -1.316607 1.115737 109 59 42
0.142536 -1.238310 1.115737 59 48 57
0.162110 -1.492776 1.115737 49 9 11
0.162110 -1.355756 1.115737 24 6 5
0.162110 -1.277458 1.115737 132 79 62
0.162110 -1.238310 1.115737 60 36 31
0.181684 -1.531925 1.115737 38 8 7
0.181684 -1.336181 1.115737 28 4 5
0.201259 -1.531925 1.115737 37 3 4
0.201259 -1.316607 1.115737 42 18 37
0.220833 -1.531925 1.115737 30 6 3
0.220833 -1.297033 1.115737 79 24 18
0.240407 -1.551499 1.115737 59 10 8
0.240407 -1.277458 1.115737 108 119 89
0.259982 -1.551499 1.115737 67 14 10
0.259982 -1.297033 1.115737 51 34 28
0.279556 -1.551499 1.115737 65 12 11
0.279556 -1.297033 1.115737 94 52 35
0.299130 -1.551499 1.115737 52 9 10
0.299130 -1.297033 1.115737 68 45 39
0.318705 -1.551499 1.115737 52 18 36
0.318705 -1.297033 1.115737 68 14 12
0.338279 -1.551499 1.115737 74 80 67
0.338279 -1.316607 1.115737 85 10 9
0.357853 -1.531925 1.115737 72 14 9
0.357853 -1.336181 1.115737 78 15 11
0.377428 -1.512350 1.115737 40 9 6
0.377428 -1.336181 1.115737 92 15 11
0.397002 -1.512350 1.115737 58 11 8
0.397002 -1.336181 1.115737 71 12 11
0.416576 -1.492776 1.115737 58 12 11
0.416576 -1.375330 1.115737 102 17 13
0.436151 -1.453627 1.115737 85 20 19
0.436151 -1.394904 1.115737 183 132 106
0.083813 -1.316607 1.135312 136 81 54
0.083813 -1.257884 1.135312 64 61 74
0.103387 -1.355756 1.135312 39 8 7
0.103387 -1.257884 1.135312 64 39 33
0.122961 -1.414479 1.135312 35 6 8
0.122961 -1.375330 1.135312 28 6 16
0.122961 -1.336181 1.135312 47 6 6
0.122961 -1.238310 1.135312 67 57 57
0.142536 -1.434053 1.135312 36 6 6
0.142536 -1.238310 1.135312 60 39 26
0.162110 -1.473202 1.135312 39 7 9
0.162110 -1.238310 1.135312 76 45 27
0.181684 -1.531925 1.135312 37 7 8
0.181684 -1.316607 1.135312 42 14 18
0.181684 -1.257884 1.135312 104 65 49
0.201259 -1.531925 1.135312 28 5 3
0.201259 -1.297033 1.135312 79 59 56
0.220833 -1.512350 1.135312 76 11 11
0.220833 -1.277458 1.135312 105 108 89
0.240407 -1.531925 1.135312 29 6 5
0.240407 -1.277458 1.135312 107 110 96
0.259982 -1.531925 1.135312 52 10 5
0.259982 -1.277458 1.135312 110 120 96
0.279556 -1.551499 1.135312 52 9 13
0.279556 -1.277458 1.135312 113 114 97
0.299130 -1.551499 1.135312 52 18 36
0.299130 -1.297033 1.135312 79 14 12
0.318705 -1.551499 1.135312 74 76 67
0.318705 -1.297033 1.135312 72 13 14
0.338279 -1.531925 1.135312 49 13 15
0.338279 -1.297033 1.135312 65 14 14
0.357853 -1.531925 1.135312 71 55 28
0.357853 -1.316607 1.135312 94 13 10
0.377428 -1.531925 1.135312 68 65 39
0.377428 -1.336181 1.135312 71 11 9
0.397002 -1.512350 1.135312 47 7 6
0.397002 -1.336181 1.135312 48 9 8
0.416576 -1.492776 1.135312 42 6 4
0.416576 -1.355756 1.135312 81 13 16
0.436151 -1.453627 1.135312 76 13 8
0.436151 -1.394904 1.135312 219 142 105
0.083813 -1.316607 1.154886 130 73 59
0.083813 -1.257884 1.154886 64 39 33
0.103387 -1.375330 1.154886 27 6 16
0.103387 -1.238310 1.154886 67 70 64
0.122961 -1.394904 1.154886 29 7 6
0.122961 -1.238310 1.154886 60 37 26
0.142536 -1.434053 1.154886 35 7 7
0.142536 -1.218735 1.154886 72 73 51
0.162110 -1.473202 1.154886 35 8 7
0.162110 -1.238310 1.154886 88 53 41
0.181684 -1.492776 1.154886 36 7 5
0.181684 -1.238310 1.154886 103 60 47
0.201259 -1.512350 1.154886 71 13 11
0.201259 -1.257884 1.154886 109 117 90
0.220833 -1.512350 1.154886 64 9 7
0.220833 -1.257884 1.154886 107 120 93
0.240407 -1.531925 1.154886 52 12 9
0.240407 -1.257884 1.154886 111 112 100
0.259982 -1.531925 1.154886 68 17 16
0.259982 -1.277458 1.154886 114 121 102
0.279556 -1.531925 1.154886 46 11 9
0.279556 -1.277458 1.154886 112 113 99
0.299130 -1.551499 1.154886 74 76 73
0.299130 -1.297033 1.154886 74 11 8
0.318705 -1.551499 1.154886 75 84 71
0.318705 -1.297033 1.154886 65 13 4
0.338279 -1.531925 1.154886 67 30 28
0.338279 -1.316607 1.154886 79 13 10
0.357853 -1.531925 1.154886 68 75 48
0.357853 -1.316607 1.154886 62 10 7
0.377428 -1.531925 1.154886 64 69 43
0.377428 -1.316607 1.154886 52 8 11
0.397002 -1.492776 1.154886 42 9 7
0.397002 -1.316607 1.154886 46 8 10
0.416576 -1.492776 1.154886 41 8 7
0.416576 -1.355756 1.154886 117 33 63
0.436151 -1.453627 1.154886 65 11 10
0.436151 -1.394904 1.154886 218 143 113
0.083813 -1.316607 1.174460 126 70 55
0.083813 -1.257884 1.174460 59 37 31
0.103387 -1.355756 1.174460 22 6 2
0.103387 -1.238310 1.174460 60 47 55
0.122961 -1.394904 1.174460 24 6 8
0.122961 -1.238310 1.174460 66 42 30
0.142536 -1.434053 1.174460 32 9 8
0.142536 -1.218735 1.174460 68 43 34
0.162110 -1.453627 1.174460 42 9 7
0.162110 -1.218735 1.174460 79 48 16
0.181684 -1.492776 1.174460 23 6 7
0.181684 -1.238310 1.174460 105 63 52
0.201259 -1.512350 1.174460 64 11 12
0.201259 -1.238310 1.174460 109 112 93
0.220833 -1.512350 1.174460 49 5 7
0.220833 -1.257884 1.174460 111 116 95
0.240407 -1.531925 1.174460 68 17 16
0.240407 -1.257884 1.174460 112 116 94
0.259982 -1.531925 1.174460 46 9 9
0.259982 -1.257884 1.174460 115 123 95
0.279556 -1.531925 1.174460 49 9 8
0.279556 -1.277458 1.174460 115 124 94
0.299130 -1.531925 1.174460 64 22 15
0.299130 -1.277458 1.174460 116 118 100
0.318705 -1.531925 1.174460 67 30 39
0.318705 -1.297033 1.174460 66 12 10
0.338279 -1.531925 1.174460 70 75 48
0.338279 -1.297033 1.174460 64 11 10
0.357853 -1.531925 1.174460 64 69 43
0.357853 -1.297033 1.174460 65 9 12
0.377428 -1.512350 1.174460 56 13 7
0.377428 -1.316607 1.174460 65 10 7
0.397002 -1.492776 1.174460 43 9 6
0.397002 -1.316607 1.174460 105 60 45
0.416576 -1.473202 1.174460 57 9 6
0.416576 -1.336181 1.174460 162 100 86
0.436151 -1.453627 1.174460 63 9 13
0.436151 -1.394904 1.174460 214 138 107
0.083813 -1.316607 1.194035 127 67 50
0.083813 -1.257884 1.194035 69 45 31
0.103387 -1.355756 1.194035 25 6 3
0.103387 -1.238310 1.194035 66 42 30
0.122961 -1.394904 1.194035 24 7 7
0.122961 -1.218735 1.194035 68 66 74
0.142536 -1.434053 1.194035 30 7 9
0.142536 -1.218735 1.194035 71 41 16
0.162110 -1.453627 1.194035 49 10 7
0.162110 -1.218735 1.194035 84 51 41
0.181684 -1.492776 1.194035 61 13 8
0.181684 -1.218735 1.194035 99 60 42
0.201259 -1.512350 1.194035 49 9 6
0.201259 -1.238310 1.194035 108 112 98
0.220833 -1.512350 1.194035 43 6 7
0.220833 -1.238310 1.194035 109 121 92
0.240407 -1.531925 1.194035 34 9 9
0.240407 -1.257884 1.194035 115 116 95
0.259982 -1.531925 1.194035 49 9 8
0.259982 -1.257884 1.194035 115 119 101
0.279556 -1.531925 1.194035 64 13 9
0.279556 -1.277458 1.194035 116 130 100
0.299130 -1.531925 1.194035 64 45 39
0.299130 -1.277458 1.194035 117 122 101
0.318705 -1.531925 1.194035 60 54 48
0.318705 -1.277458 1.194035 121 127 104
0.338279 -1.531925 1.194035 64 42 19
0.338279 -1.297033 1.194035 65 11 9
0.357853 -1.531925 1.194035 72 37 13
0.357853 -1.297033 1.194035 54 9 10
0.377428 -1.512350 1.194035 59 20 14
0.377428 -1.297033 1.194035 96 40 34
0.397002 -1.492776 1.194035 35 7 4
0.397002 -1.316607 1.194035 119 64 55
0.416576 -1.473202 1.194035 43 7 4
0.416576 -1.336181 1.194035 173 104 88
0.436151 -1.453627 1.194035 51 8 9
0.436151 -1.375330 1.194035 230 137 105
0.083813 -1.316607 1.213609 117 77 59
0.083813 -1.238310 1.213609 63 40 30
0.103387 -1.355756 1.213609 11 5 3
0.103387 -1.218735 1.213609 71 80 60
0.122961 -1.394904 1.213609 58 9 8
0.122961 -1.218735 1.213609 75 44 44
0.142536 -1.434053 1.213609 41 7 9
0.142536 -1.218735 1.213609 84 51 44
0.162110 -1.473202 1.213609 46 6 6
0.162110 -1.199161 1.213609 72 81 66
0.181684 -1.473202 1.213609 65 7 9
0.181684 -1.218735 1.213609 127 69 52
0.201259 -1.492776 1.213609 34 7 6
0.201259 -1.218735 1.213609 109 114 100
0.220833 -1.492776 1.213609 31 6 6
0.220833 -1.238310 1.213609 112 123 94
0.240407 -1.512350 1.213609 54 7 5
0.240407 -1.238310 1.213609 116 124 96
0.259982 -1.531925 1.213609 67 13 9
0.259982 -1.238310 1.213609 115 119 101
0.279556 -1.531925 1.213609 64 45 48
0.279556 -1.257884 1.213609 120 131 95
0.299130 -1.531925 1.213609 60 54 43
0.299130 -1.277458 1.213609 122 124 100
0.318705 -1.531925 1.213609 57 11 19
0.318705 -1.277458 1.213609 123 130 100
0.338279 -1.531925 1.213609 72 37 13
0.338279 -1.277458 1.213609 123 137 103
0.357853 -1.512350 1.213609 59 20 14
0.357853 -1.297033 1.213609 81 45 46
0.377428 -1.492776 1.213609 43 7 4
0.377428 -1.297033 1.213609 105 63 47
0.397002 -1.473202 1.213609 43 12 8
0.397002 -1.316607 1.213609 128 79 63
0.416576 -1.473202 1.213609 89 16 11
0.416576 -1.336181 1.213609 191 112 100
0.436151 -1.434053 1.213609 89 16 12
0.436151 -1.375330 1.213609 238 157 112
0.083813 -1.316607 1.233183 79 59 56
0.083813 -1.238310 1.233183 71 46 38
0.103387 -1.375330 1.233183 44 10 4
0.103387 -1.218735 1.233183 72 54 44
0.122961 -1.394904 1.233183 45 9 10
0.122961 -1.218735 1.233183 84 50 40
0.142536 -1.434053 1.233183 66 15 9
0.142536 -1.218735 1.233183 96 50 41
0.162110 -1.453627 1.233183 89 16 14
0.162110 -1.199161 1.233183 72 78 62
0.181684 -1.492776 1.233183 34 6 5
0.181684 -1.199161 1.233183 77 85 75
0.201259 -1.492776 1.233183 49 6 6
0.201259 -1.218735 1.233183 112 118 100
0.220833 -1.492776 1.233183 80 14 12
0.220833 -1.218735 1.233183 115 117 104
0.240407 -1.512350 1.233183 52 8 6
0.240407 -1.238310 1.233183 115 129 99
0.259982 -1.531925 1.233183 64 25 10
0.259982 -1.238310 1.233183 114 123 98
0.279556 -1.531925 1.233183 51 32 43
0.279556 -1.238310 1.233183 120 132 97
0.299130 -1.531925 1.233183 57 11 13
0.299130 -1.257884 1.233183 124 126 101
0.318705 -1.531925 1.233183 68 20 38
0.318705 -1.257884 1.233183 127 123 108
0.338279 -1.512350 1.233183 50 12 14
0.338279 -1.277458 1.233183 125 136 114
0.357853 -1.512350 1.233183 74 49 18
0.357853 -1.277458 1.233183 125 131 96
0.377428 -1.492776 1.233183 91 16 15
0.377428 -1.297033 1.233183 93 51 43
0.397002 -1.473202 1.233183 89 16 11
0.397002 -1.297033 1.233183 98 62 46
0.416576 -1.453627 1.233183 82 11 8
0.416576 -1.336181 1.233183 143 80 64
0.436151 -1.414479 1.233183 71 13 12
0.436151 -1.375330 1.233183 237 143 108
0.083813 -1.316607 1.252758 67 38 37
0.083813 -1.238310 1.252758 86 52 41
0.103387 -1.355756 1.252758 33 17 10
0.103387 -1.218735 1.252758 79 51 40
0.122961 -1.375330 1.252758 45 8 2
0.122961 -1.218735 1.252758 81 50 47
0.142536 -1.434053 1.252758 84 13 11
0.142536 -1.218735 1.252758 125 65 44
0.162110 -1.453627 1.252758 81 15 13
0.162110 -1.199161 1.252758 77 85 71
0.181684 -1.492776 1.252758 49 6 6
0.181684 -1.199161 1.252758 76 89 67
0.201259 -1.492776 1.252758 80 40 14
0.201259 -1.199161 1.252758 114 125 94
0.220833 -1.492776 1.252758 74 52 68
0.220833 -1.218735 1.252758 116 118 99
0.240407 -1.512350 1.252758 58 8 8
0.240407 -1.218735 1.252758 119 129 100
0.259982 -1.512350 1.252758 38 7 4
0.259982 -1.238310 1.252758 116 126 97
0.279556 -1.531925 1.252758 57 11 13
0.279556 -1.238310 1.252758 117 122 101
0.299130 -1.531925 1.252758 76 62 38
0.299130 -1.257884 1.252758 122 134 103
0.318705 -1.531925 1.252758 77 79 71
0.318705 -1.257884 1.252758 125 126 105
0.338279 -1.512350 1.252758 70 49 18
0.338279 -1.257884 1.252758 126 138 100
0.357853 -1.492776 1.252758 91 16 15
0.357853 -1.277458 1.252758 127 129 116
0.377428 -1.492776 1.252758 64 10 9
0.377428 -1.277458 1.252758 129 132 110
0.397002 -1.473202 1.252758 61 10 7
0.397002 -1.297033 1.252758 103 65 45
0.416576 -1.453627 1.252758 74 17 9
0.416576 -1.336181 1.252758 188 120 90
0.436151 -1.394904 1.252758 107 16 14
0.436151 -1.375330 1.252758 151 112 109
0.103387 -1.316607 1.272332 105 57 46
0.103387 -1.218735 1.272332 81 60 73
0.122961 -1.375330 1.272332 63 11 10
0.122961 -1.218735 1.272332 99 67 44
0.142536 -1.414479 1.272332 75 10 10
0.142536 -1.218735 1.272332 141 81 58
0.162110 -1.453627 1.272332 54 9 10
0.162110 -1.218735 1.272332 146 86 67
0.181684 -1.473202 1.272332 104 18 12
0.181684 -1.199161 1.272332 76 52 48
0.201259 -1.492776 1.272332 74 21 9
0.201259 -1.218735 1.272332 116 123 102
0.220833 -1.492776 1.272332 43 11 7
0.220833 -1.218735 1.272332 121 113 100
0.240407 -1.492776 1.272332 57 10 9
0.240407 -1.218735 1.272332 121 130 101
0.259982 -1.512350 1.272332 47 8 7
0.259982 -1.218735 1.272332 118 133 104
0.279556 -1.531925 1.272332 76 62 71
0.279556 -1.238310 1.272332 122 125 108
0.299130 -1.512350 1.272332 71 20 16
0.299130 -1.238310 1.272332 125 133 97
0.318705 -1.512350 1.272332 79 18 18
0.318705 -1.238310 1.272332 124 128 117
0.338279 -1.512350 1.272332 68 33 11
0.338279 -1.257884 1.272332 126 141 104
0.357853 -1.492776 1.272332 62 10 9
0.357853 -1.257884 1.272332 128 138 109
0.377428 -1.492776 1.272332 87 48 27
0.377428 -1.277458 1.272332 129 133 111
0.397002 -1.473202 1.272332 86 17 11
0.397002 -1.277458 1.272332 59 73 62
0.416576 -1.434053 1.272332 79 16 12
0.416576 -1.316607 1.272332 132 101 75
0.436151 -1.375330 1.272332 105 18 10
0.436151 -1.355756 1.272332 157 106 105
0.103387 -1.277458 1.291906 144 91 67
0.103387 -1.238310 1.291906 140 85 65
0.122961 -1.316607 1.291906 76 11 4
0.122961 -1.218735 1.291906 109 73 58
0.142536 -1.375330 1.291906 93 11 12
0.142536 -1.218735 1.291906 146 81 50
0.162110 -1.414479 1.291906 69 14 4
0.162110 -1.218735 1.291906 120 79 54
0.181684 -1.453627 1.291906 123 39 14
0.181684 -1.199161 1.291906 74 82 68
0.201259 -1.473202 1.291906 108 58 62
0.201259 -1.218735 1.291906 121 130 106
0.220833 -1.473202 1.291906 85 37 45
0.220833 -1.218735 1.291906 119 124 101
0.240407 -1.492776 1.291906 58 9 7
0.240407 -1.218735 1.291906 120 126 104
0.259982 -1.512350 1.291906 50 9 3
0.259982 -1.218735 1.291906 124 135 104
0.279556 -1.512350 1.291906 71 13 14
0.279556 -1.218735 1.291906 122 127 103
0.299130 -1.512350 1.291906 79 18 17
0.299130 -1.238310 1.291906 124 129 106
0.318705 -1.512350 1.291906 59 10 11
0.318705 -1.238310 1.291906 128 132 107
0.338279 -1.492776 1.291906 59 10 10
0.338279 -1.238310 1.291906 125 133 110
0.357853 -1.492776 1.291906 87 48 27
0.357853 -1.257884 1.291906 129 140 113
0.377428 -1.473202 1.291906 89 17 11
0.377428 -1.257884 1.291906 134 134 69
0.397002 -1.453627 1.291906 70 10 9
0.397002 -1.277458 1.291906 80 52 36
0.416576 -1.434053 1.291906 115 16 10
0.416576 -1.316607 1.291906 164 121 104
0.436151 -1.355756 1.291906 95 19 12
0.122961 -1.277458 1.311481 73 25 41
0.122961 -1.238310 1.311481 166 97 78
0.142536 -1.316607 1.311481 53 11 7
0.142536 -1.218735 1.311481 62 50 23
0.162110 -1.394904 1.311481 72 14 10
0.162110 -1.218735 1.311481 57 16 22
0.181684 -1.434053 1.311481 210 104 74
0.181684 -1.218735 1.311481 77 13 11
0.201259 -1.453627 1.311481 208 126 106
0.201259 -1.218735 1.311481 123 130 106
0.220833 -1.453627 1.311481 168 99 79
0.220833 -1.218735 1.311481 120 126 108
0.240407 -1.473202 1.311481 69 11 11
0.240407 -1.218735 1.311481 127 122 104
0.259982 -1.512350 1.311481 79 13 14
0.259982 -1.473202 1.311481 63 9 13
0.259982 -1.218735 1.311481 123 136 106
0.279556 -1.512350 1.311481 71 14 9
0.279556 -1.218735 1.311481 127 130 108
0.299130 -1.512350 1.311481 59 10 15
0.299130 -1.218735 1.311481 125 129 109
0.318705 -1.512350 1.311481 70 16 24
0.318705 -1.238310 1.311481 131 141 112
0.338279 -1.492776 1.311481 105 45 27
0.338279 -1.238310 1.311481 128 132 113
0.357853 -1.473202 1.311481 98 14 3
0.357853 -1.257884 1.311481 108 141 112
0.377428 -1.473202 1.311481 77 14 9
0.377428 -1.257884 1.311481 72 44 41
0.397002 -1.434053 1.311481 115 24 17
0.397002 -1.277458 1.311481 96 62 50
0.416576 -1.434053 1.311481 132 20 14
0.416576 -1.316607 1.311481 222 155 117
0.142536 -1.297033 1.331055 48 8 7
0.142536 -1.238310 1.331055 71 12 14
0.162110 -1.336181 1.331055 52 8 0
0.162110 -1.218735 1.331055 73 22 39
0.181684 -1.394904 1.331055 123 32 12
0.181684 -1.218735 1.331055 70 18 20
0.201259 -1.414479 1.331055 222 143 108
0.201259 -1.218735 1.331055 127 131 100
0.220833 -1.434053 1.331055 211 129 109
0.220833 -1.218735 1.331055 125 134 109
0.240407 -1.453627 1.331055 125 35 50
0.240407 -1.218735 1.331055 125 126 108
0.259982 -1.473202 1.331055 77 13 9
0.259982 -1.218735 1.331055 125 136 108
0.279556 -1.473202 1.331055 73 15 11
0.279556 -1.218735 1.331055 128 130 109
0.299130 -1.492776 1.331055 83 19 14
0.299130 -1.238310 1.331055 131 141 112
0.318705 -1.512350 1.331055 80 81 71
0.318705 -1.238310 1.331055 128 140 107
0.338279 -1.492776 1.331055 73 85 70
0.338279 -1.238310 1.331055 132 136 108
0.357853 -1.473202 1.331055 72 12 31
0.357853 -1.238310 1.331055 86 114 106
0.377428 -1.453627 1.331055 116 19 17
0.377428 -1.238310 1.331055 68 48 28
0.397002 -1.434053 1.331055 108 20 14
0.397002 -1.277458 1.331055 182 112 55
0.416576 -1.414479 1.331055 106 18 10
0.416576 -1.316607 1.331055 138 90 93
0.436151 -1.394904 1.331055 83 16 13
0.436151 -1.375330 1.331055 95 17 13
0.162110 -1.316607 1.350629 57 10 7
0.162110 -1.238310 1.350629 52 11 8
0.181684 -1.355756 1.350629 141 75 56
0.181684 -1.218735 1.350629 75 68 61
0.201259 -1.394904 1.350629 225 143 111
0.201259 -1.218735 1.350629 120 125 103
0.220833 -1.394904 1.350629 225 138 105
0.220833 -1.218735 1.350629 124 135 99
0.240407 -1.414479 1.350629 235 139 114
0.240407 -1.218735 1.350629 125 133 106
0.259982 -1.434053 1.350629 82 20 26
0.259982 -1.218735 1.350629 128 140 110
0.279556 -1.453627 1.350629 67 10 5
0.279556 -1.218735 1.350629 126 137 107
0.299130 -1.473202 1.350629 98 14 11
0.299130 -1.238310 1.350629 129 133 107
0.318705 -1.473202 1.350629 63 11 9
0.318705 -1.238310 1.350629 132 138 125
0.338279 -1.473202 1.350629 93 57 31
0.338279 -1.238310 1.350629 119 90 28
0.357853 -1.473202 1.350629 77 82 71
0.357853 -1.238310 1.350629 67 50 46
0.377428 -1.453627 1.350629 78 80 70
0.377428 -1.238310 1.350629 156 81 49
0.397002 -1.434053 1.350629 70 82 61
0.397002 -1.257884 1.350629 233 138 94
0.416576 -1.414479 1.350629 95 38 14
0.416576 -1.297033 1.350629 108 46 38
0.436151 -1.414479 1.350629 73 76 58
0.436151 -1.336181 1.350629 95 13 11
0.162110 -1.277458 1.370204 47 19 23
0.162110 -1.257884 1.370204 41 8 11
0.181684 -1.316607 1.370204 91 54 42
0.181684 -1.238310 1.370204 53 9 4
0.201259 -1.375330 1.370204 196 112 91
0.201259 -1.218735 1.370204 125 126 104
0.220833 -1.394904 1.370204 227 135 100
0.220833 -1.218735 1.370204 125 136 108
0.240407 -1.394904 1.370204 217 139 112
0.240407 -1.218735 1.370204 129 130 110
0.259982 -1.414479 1.370204 97 35 43
0.259982 -1.218735 1.370204 126 134 105
0.279556 -1.434053 1.370204 91 14 12
0.279556 -1.238310 1.370204 129 133 115
0.299130 -1.453627 1.370204 71 10 7
0.299130 -1.238310 1.370204 136 126 125
0.318705 -1.453627 1.370204 111 22 18
0.318705 -1.238310 1.370204 63 80 67
0.338279 -1.473202 1.370204 77 82 69
0.338279 -1.238310 1.370204 67 50 49
0.357853 -1.453627 1.370204 73 81 70
0.357853 -1.238310 1.370204 114 80 84
0.377428 -1.434053 1.370204 89 72 72
0.377428 -1.238310 1.370204 195 168 111
0.397002 -1.414479 1.370204 77 28 14
0.397002 -1.238310 1.370204 142 142 117
0.416576 -1.414479 1.370204 67 76 58
0.416576 -1.257884 1.370204 140 157 114
0.436151 -1.394904 1.370204 163 107 94
0.436151 -1.316607 1.370204 122 43 16
0.455725 -1.375330 1.370204 246 162 127
0.455725 -1.336181 1.370204 223 133 94
0.475299 -1.375330 1.370204 255 152 116
0.475299 -1.355756 1.370204 255 186 146
0.162110 -1.277458 1.389778 45 25 25
0.181684 -1.316607 1.389778 124 72 45
0.181684 -1.257884 1.389778 51 29 26
0.201259 -1.336181 1.389778 125 75 68
0.201259 -1.238310 1.389778 127 135 109
0.220833 -1.355756 1.389778 97 56 60
0.220833 -1.218735 1.389778 129 139 110
0.240407 -1.375330 1.389778 209 122 96
0.240407 -1.218735 1.389778 129 132 105
0.259982 -1.394904 1.389778 156 32 36
0.259982 -1.218735 1.389778 128 133 108
0.279556 -1.414479 1.389778 91 16 12
0.279556 -1.238310 1.389778 136 130 110
0.299130 -1.434053 1.389778 114 20 16
0.299130 -1.238310 1.389778 96 57 27
0.318705 -1.434053 1.389778 122 19 13
0.318705 -1.238310 1.389778 114 58 39
0.338279 -1.434053 1.389778 100 26 16
0.338279 -1.238310 1.389778 205 103 77
0.357853 -1.434053 1.389778 82 85 72
0.357853 -1.238310 1.389778 238 147 111
0.377428 -1.414479 1.389778 77 28 58
0.377428 -1.238310 1.389778 142 152 114
0.397002 -1.414479 1.389778 86 77 63
0.397002 -1.257884 1.389778 142 146 123
0.416576 -1.394904 1.389778 217 119 94
0.416576 -1.257884 1.389778 142 149 125
0.436151 -1.394904 1.389778 104 92 84
0.436151 -1.316607 1.389778 191 110 100
0.455725 -1.394904 1.389778 85 78 69
0.455725 -1.336181 1.389778 245 161 125
0.475299 -1.394904 1.389778 90 75 54
0.475299 -1.336181 1.389778 255 183 145
0.494874 -1.394904 1.389778 113 68 56
0.494874 -1.355756 1.389778 255 196 162
0.514448 -1.394904 1.389778 143 80 76
0.514448 -1.375330 1.389778 244 146 120
0.534022 -1.394904 1.389778 183 105 104
0.534022 -1.375330 1.389778 255 171 138
0.162110 -1.297033 1.409352 91 41 25
0.162110 -1.277458 1.409352 61 34 26
0.181684 -1.316607 1.409352 122 76 62
0.181684 -1.257884 1.409352 72 44 47
0.201259 -1.355756 1.409352 115 56 36
0.201259 -1.238310 1.409352 126 130 111
0.220833 -1.355756 1.409352 161 124 106
0.220833 -1.238310 1.409352 131 138 113
0.240407 -1.355756 1.409352 250 152 106
0.240407 -1.238310 1.409352 128 133 103
0.259982 -1.375330 1.409352 139 21 29
0.259982 -1.238310 1.409352 96 130 110
0.279556 -1.375330 1.409352 104 17 12
0.279556 -1.238310 1.409352 52 52 34
0.299130 -1.394904 1.409352 96 14 5
0.299130 -1.238310 1.409352 80 58 77
0.318705 -1.414479 1.409352 108 15 13
0.318705 -1.238310 1.409352 205 170 111
0.338279 -1.434053 1.409352 82 82 66
0.338279 -1.238310 1.409352 170 169 111
0.357853 -1.414479 1.409352 86 44 38
0.357853 -1.238310 1.409352 140 141 114
0.377428 -1.414479 1.409352 75 81 63
0.377428 -1.238310 1.409352 141 156 120
0.397002 -1.394904 1.409352 217 119 84
0.397002 -1.257884 1.409352 142 149 121
0.416576 -1.394904 1.409352 209 104 75
0.416576 -1.257884 1.409352 145 150 119
0.436151 -1.394904 1.409352 90 78 69
0.436151 -1.316607 1.409352 255 167 136
0.455725 -1.394904 1.409352 113 72 61
0.455725 -1.316607 1.409352 255 187 152
0.475299 -1.414479 1.409352 78 76 68
0.475299 -1.336181 1.409352 255 219 174
0.494874 -1.414479 1.409352 77 70 54
0.494874 -1.355756 1.409352 255 187 148
0.514448 -1.434053 1.409352 67 79 65
0.514448 -1.375330 1.409352 255 187 148
0.534022 -1.434053 1.409352 70 84 73
0.534022 -1.375330 1.409352 255 204 153
0.553597 -1.414479 1.409352 162 87 60
0.553597 -1.375330 1.409352 255 204 154
0.573171 -1.414479 1.409352 146 85 79
0.573171 -1.394904 1.409352 255 179 138
0.083813 -1.297033 1.428927 50 26 19
0.103387 -1.336181 1.428927 97 57 47
0.103387 -1.277458 1.428927 51 28 26
0.122961 -1.316607 1.428927 106 68 60
0.122961 -1.257884 1.428927 49 32 24
0.142536 -1.316607 1.428927 114 73 54
0.142536 -1.257884 1.428927 69 42 32
0.162110 -1.316607 1.428927 122 66 43
0.162110 -1.238310 1.428927 79 46 40
0.181684 -1.336181 1.428927 105 66 59
0.181684 -1.218735 1.428927 58 23 21
0.201259 -1.336181 1.428927 117 73 63
0.201259 -1.199161 1.428927 128 139 108
0.220833 -1.355756 1.428927 215 136 106
0.220833 -1.218735 1.428927 131 131 111
0.240407 -1.355756 1.428927 255 159 134
0.240407 -1.218735 1.428927 132 144 111
0.259982 -1.355756 1.428927 137 81 91
0.259982 -1.238310 1.428927 60 35 33
0.279556 -1.355756 1.428927 108 17 16
0.279556 -1.238310 1.428927 163 76 50
0.299130 -1.375330 1.428927 103 16 12
0.299130 -1.238310 1.428927 239 155 111
0.318705 -1.394904 1.428927 82 12 15
0.318705 -1.238310 1.428927 170 155 117
0.338279 -1.394904 1.428927 106 34 85
0.338279 -1.238310 1.428927 140 150 122
0.357853 -1.414479 1.428927 75 82 74
0.357853 -1.238310 1.428927 141 145 120
0.377428 -1.394904 1.428927 209 139 114
0.377428 -1.257884 1.428927 145 154 114
0.397002 -1.394904 1.428927 193 97 69
0.397002 -1.257884 1.428927 147 149 119
0.416576 -1.394904 1.428927 179 78 61
0.416576 -1.257884 1.428927 148 152 128
0.436151 -1.414479 1.428927 71 75 58
0.436151 -1.316607 1.428927 255 196 152
0.455725 -1.414479 1.428927 94 65 60
0.455725 -1.316607 1.428927 255 193 146
0.475299 -1.414479 1.428927 115 66 54
0.475299 -1.336181 1.428927 255 229 176
0.494874 -1.434053 1.428927 70 79 65
0.494874 -1.336181 1.428927 255 218 184
0.514448 -1.434053 1.428927 79 78 54
0.514448 -1.355756 1.428927 255 206 165
0.534022 -1.434053 1.428927 96 73 59
0.534022 -1.375330 1.428927 255 219 164
0.553597 -1.434053 1.428927 116 71 57
0.553597 -1.375330 1.428927 255 208 165
0.573171 -1.453627 1.428927 67 78 67
0.573171 -1.394904 1.428927 255 205 165
0.592745 -1.453627 1.428927 72 84 67
0.592745 -1.394904 1.428927 255 206 159
0.612320 -1.434053 1.428927 209 115 82
0.612320 -1.414479 1.428927 255 169 130
0.064238 -1.297033 1.448501 50 30 23
0.064238 -1.277458 1.448501 41 8 11
0.083813 -1.316607 1.448501 79 53 42
0.083813 -1.257884 1.448501 53 9 12
0.103387 -1.336181 1.448501 99 56 45
0.103387 -1.238310 1.448501 65 52 51
0.122961 -1.336181 1.448501 112 61 45
0.122961 -1.218735 1.448501 70 81 55
0.142536 -1.336181 1.448501 105 65 46
0.142536 -1.218735 1.448501 70 49 36
0.162110 -1.336181 1.448501 120 72 65
0.162110 -1.199161 1.448501 58 38 36
0.181684 -1.336181 1.448501 138 83 63
0.181684 -1.199161 1.448501 42 24 14
0.201259 -1.336181 1.448501 136 78 51
0.201259 -1.179587 1.448501 128 141 108
0.220833 -1.336181 1.448501 167 97 65
0.220833 -1.199161 1.448501 133 133 99
0.240407 -1.355756 1.448501 190 63 10
0.240407 -1.218735 1.448501 80 48 34
0.259982 -1.355756 1.448501 108 16 13
0.259982 -1.218735 1.448501 67 47 51
0.279556 -1.355756 1.448501 103 14 13
0.279556 -1.238310 1.448501 239 174 111
0.299130 -1.355756 1.448501 95 13 11
0.299130 -1.238310 1.448501 151 142 117
0.318705 -1.375330 1.448501 156 131 102
0.318705 -1.257884 1.448501 143 155 118
0.338279 -1.375330 1.448501 247 159 135
0.338279 -1.257884 1.448501 145 157 127
0.357853 -1.394904 1.448501 209 135 116
0.357853 -1.238310 1.448501 149 143 123
0.377428 -1.394904 1.448501 179 120 118
0.377428 -1.257884 1.448501 148 158 125
0.397002 -1.394904 1.448501 187 88 61
0.397002 -1.257884 1.448501 149 157 126
0.416576 -1.394904 1.448501 206 119 101
0.416576 -1.297033 1.448501 101 96 75
0.436151 -1.394904 1.448501 208 150 127
0.436151 -1.297033 1.448501 74 82 77
0.455725 -1.414479 1.448501 115 66 57
0.455725 -1.316607 1.448501 195 159 137
0.475299 -1.414479 1.448501 191 99 66
0.475299 -1.336181 1.448501 255 190 115
0.494874 -1.434053 1.448501 96 71 55
0.494874 -1.355756 1.448501 255 214 150
0.514448 -1.434053 1.448501 116 71 59
0.514448 -1.355756 1.448501 253 184 107
0.534022 -1.434053 1.448501 135 80 57
0.534022 -1.375330 1.448501 255 200 138
0.553597 -1.453627 1.448501 72 78 67
0.553597 -1.375330 1.448501 255 192 140
0.573171 -1.453627 1.448501 86 78 65
0.573171 -1.394904 1.448501 255 206 164
0.592745 -1.453627 1.448501 116 76 67
0.592745 -1.394904 1.448501 255 212 157
0.612320 -1.473202 1.448501 72 78 71
0.612320 -1.414479 1.448501 255 205 161
0.631894 -1.473202 1.448501 67 75 58
0.631894 -1.414479 1.448501 255 210 170
0.651468 -1.453627 1.448501 255 148 133
0.651468 -1.414479 1.448501 255 208 169
0.671043 -1.453627 1.448501 255 180 155
0.671043 -1.434053 1.448501 255 216 171
0.064238 -1.297033 1.468075 48 22 20
0.064238 -1.257884 1.468075 51 13 15
0.083813 -1.316607 1.468075 80 51 45
0.083813 -1.238310 1.468075 65 53 60
0.103387 -1.336181 1.468075 116 70 62
0.103387 -1.238310 1.468075 62 41 38
0.122961 -1.336181 1.468075 118 68 65
0.122961 -1.218735 1.468075 68 44 36
0.142536 -1.336181 1.468075 120 88 63
0.142536 -1.199161 1.468075 58 40 32
0.162110 -1.336181 1.468075 132 86 69
0.162110 -1.160012 1.468075 62 74 56
0.181684 -1.336181 1.468075 128 76 65
0.181684 -1.140438 1.468075 38 55 50
0.201259 -1.336181 1.468075 167 122 82
0.201259 -1.140438 1.468075 127 139 106
0.220833 -1.336181 1.468075 196 136 99
0.220833 -1.140438 1.468075 128 133 113
0.240407 -1.336181 1.468075 129 17 13
0.240407 -1.199161 1.468075 105 70 45
0.259982 -1.316607 1.468075 135 47 22
0.259982 -1.238310 1.468075 242 149 113
0.279556 -1.316607 1.468075 145 46 60
0.279556 -1.257884 1.468075 139 154 115
0.299130 -1.297033 1.468075 98 54 33
0.299130 -1.277458 1.468075 144 145 125
0.318705 -1.277458 1.468075 145 160 121
0.338279 -1.375330 1.468075 255 185 156
0.338279 -1.336181 1.468075 228 157 124
0.357853 -1.375330 1.468075 255 200 171
0.357853 -1.316607 1.468075 255 167 110
0.377428 -1.375330 1.468075 255 209 162
0.377428 -1.297033 1.468075 85 85 70
0.397002 -1.375330 1.468075 255 202 157
0.397002 -1.297033 1.468075 70 86 77
0.416576 -1.394904 1.468075 255 170 127
0.416576 -1.316607 1.468075 255 156 100
0.436151 -1.394904 1.468075 255 187 149
0.436151 -1.316607 1.468075 87 101 96
0.455725 -1.394904 1.468075 255 200 154
0.455725 -1.336181 1.468075 130 117 115
0.475299 -1.414479 1.468075 242 126 114
0.475299 -1.336181 1.468075 91 108 90
0.494874 -1.414479 1.468075 252 149 130
0.494874 -1.355756 1.468075 105 104 107
0.514448 -1.434053 1.468075 172 94 68
0.514448 -1.375330 1.468075 255 200 138
0.534022 -1.434053 1.468075 216 118 86
0.534022 -1.375330 1.468075 190 110 75
0.553597 -1.453627 1.468075 116 78 65
0.553597 -1.375330 1.468075 99 112 72
0.573171 -1.453627 1.468075 157 90 81
0.573171 -1.394904 1.468075 255 192 140
0.592745 -1.473202 1.468075 95 75 71
0.592745 -1.394904 1.468075 255 170 102
0.612320 -1.473202 1.468075 138 79 70
0.612320 -1.394904 1.468075 214 123 83
0.631894 -1.473202 1.468075 119 94 88
0.631894 -1.414479 1.468075 255 208 171
0.651468 -1.492776 1.468075 67 80 70
0.651468 -1.414479 1.468075 255 213 169
0.671043 -1.492776 1.468075 77 77 70
0.671043 -1.414479 1.468075 255 218 174
0.690617 -1.492776 1.468075 87 74 65
0.690617 -1.434053 1.468075 255 202 172
0.710191 -1.473202 1.468075 255 129 109
0.710191 -1.434053 1.468075 255 206 162
0.064238 -1.297033 1.487650 61 34 33
0.064238 -1.238310 1.487650 63 51 60
0.083813 -1.316607 1.487650 119 52 50
0.083813 -1.238310 1.487650 77 45 37
0.103387 -1.336181 1.487650 132 77 67
0.103387 -1.199161 1.487650 63 84 77
0.122961 -1.336181 1.487650 140 88 63
0.122961 -1.179587 1.487650 66 73 67
0.142536 -1.336181 1.487650 132 77 67
0.142536 -1.160012 1.487650 55 70 63
0.162110 -1.336181 1.487650 140 82 71
0.162110 -1.140438 1.487650 49 42 18
0.181684 -1.336181 1.487650 158 109 99
0.181684 -1.140438 1.487650 29 17 13
0.201259 -1.336181 1.487650 185 130 79
0.201259 -1.140438 1.487650 126 142 111
0.220833 -1.336181 1.487650 111 20 14
0.220833 -1.140438 1.487650 132 134 117
0.240407 -1.336181 1.487650 117 18 14
0.240407 -1.140438 1.487650 131 144 122
0.259982 -1.316607 1.487650 175 102 87
0.259982 -1.238310 1.487650 145 142 113
0.259982 -1.160012 1.487650 124 102 59
0.279556 -1.316607 1.487650 168 56 60
0.279556 -1.277458 1.487650 142 149 125
0.299130 -1.297033 1.487650 87 50 27
0.416576 -1.355756 1.487650 255 210 156
0.416576 -1.336181 1.487650 255 135 83
0.494874 -1.414479 1.487650 255 185 158
0.514448 -1.414479 1.487650 255 202 160
0.514448 -1.394904 1.487650 255 213 150
0.534022 -1.434053 1.487650 255 166 128
0.534022 -1.394904 1.487650 255 188 124
0.553597 -1.453627 1.487650 207 115 101
0.553597 -1.394904 1.487650 162 157 140
0.573171 -1.453627 1.487650 255 150 128
0.573171 -1.394904 1.487650 89 108 83
0.592745 -1.473202 1.487650 188 97 70
0.592745 -1.394904 1.487650 133 95 74
0.612320 -1.473202 1.487650 234 126 88
0.612320 -1.394904 1.487650 96 85 73
0.631894 -1.492776 1.487650 77 80 70
0.631894 -1.394904 1.487650 77 99 82
0.651468 -1.492776 1.487650 87 81 64
0.651468 -1.414479 1.487650 255 205 165
0.671043 -1.492776 1.487650 103 76 65
0.671043 -1.414479 1.487650 255 216 158
0.690617 -1.492776 1.487650 137 80 70
0.690617 -1.414479 1.487650 255 197 129
0.710191 -1.492776 1.487650 170 86 86
0.710191 -1.434053 1.487650 255 208 167
0.729766 -1.492776 1.487650 135 95 92
0.729766 -1.434053 1.487650 255 202 166
0.749340 -1.473202 1.487650 255 177 144
0.749340 -1.453627 1.487650 255 207 168
0.044664 -1.277458 1.507224 72 42 32
0.064238 -1.297033 1.507224 195 98 88
0.064238 -1.238310 1.507224 70 48 40
0.083813 -1.316607 1.507224 145 78 53
0.083813 -1.199161 1.507224 73 83 56
0.103387 -1.316607 1.507224 150 85 58
0.103387 -1.179587 1.507224 62 67 67
0.122961 -1.336181 1.507224 142 87 67
0.122961 -1.160012 1.507224 56 62 39
0.142536 -1.336181 1.507224 158 89 73
0.142536 -1.140438 1.507224 59 38 36
0.162110 -1.336181 1.507224 185 104 70
0.162110 -1.140438 1.507224 23 18 20
0.181684 -1.336181 1.507224 158 57 79
0.181684 -1.140438 1.507224 23 15 13
0.201259 -1.336181 1.507224 108 22 17
0.201259 -1.120864 1.507224 129 130 113
0.220833 -1.336181 1.507224 96 21 15
0.220833 -1.120864 1.507224 129 142 106
0.240407 -1.336181 1.507224 103 22 12
0.240407 -1.140438 1.507224 93 59 35
0.259982 -1.316607 1.507224 147 87 80
0.259982 -1.140438 1.507224 82 64 44
0.279556 -1.316607 1.507224 149 112 97
0.279556 -1.160012 1.507224 230 142 93
0.299130 -1.297033 1.507224 88 62 32
0.299130 -1.218735 1.507224 141 155 123
0.299130 -1.160012 1.507224 212 127 110
0.318705 -1.199161 1.507224 144 151 125
0.592745 -1.434053 1.507224 255 214 166
0.612320 -1.473202 1.507224 255 169 133
0.612320 -1.434053 1.507224 255 199 152
0.631894 -1.492776 1.507224 103 81 69
0.631894 -1.414479 1.507224 255 201 158
0.651468 -1.492776 1.507224 137 82 70
0.651468 -1.414479 1.507224 209 182 129
0.671043 -1.492776 1.507224 170 86 70
0.671043 -1.414479 1.507224 255 160 101
0.690617 -1.492776 1.507224 206 105 86
0.690617 -1.414479 1.507224 206 121 80
0.710191 -1.492776 1.507224 163 95 92
0.710191 -1.414479 1.507224 123 131 94
0.729766 -1.512350 1.507224 70 75 62
0.729766 -1.434053 1.507224 255 205 155
0.749340 -1.512350 1.507224 80 77 63
0.749340 -1.453627 1.507224 255 213 181
0.768914 -1.512350 1.507224 94 80 64
0.768914 -1.453627 1.507224 255 216 161
0.788489 -1.473202 1.507224 255 176 155
0.064238 -1.297033 1.526798 182 88 73
0.064238 -1.218735 1.526798 42 40 32
0.083813 -1.316607 1.526798 150 85 70
0.083813 -1.199161 1.526798 32 23 16
0.103387 -1.336181 1.526798 142 95 72
0.103387 -1.160012 1.526798 38 55 50
0.122961 -1.336181 1.526798 172 100 73
0.122961 -1.140438 1.526798 59 61 73
0.142536 -1.336181 1.526798 174 98 87
0.142536 -1.140438 1.526798 42 18 16
0.162110 -1.336181 1.526798 158 46 38
0.162110 -1.140438 1.526798 23 17 17
0.181684 -1.336181 1.526798 121 21 17
0.181684 -1.140438 1.526798 24 18 15
0.201259 -1.336181 1.526798 145 22 10
0.201259 -1.120864 1.526798 129 134 106
0.220833 -1.336181 1.526798 103 50 32
0.220833 -1.120864 1.526798 129 143 124
0.240407 -1.336181 1.526798 234 140 103
0.240407 -1.120864 1.526798 131 130 109
0.259982 -1.316607 1.526798 149 112 80
0.259982 -1.140438 1.526798 140 105 68
0.279556 -1.297033 1.526798 50 56 45
0.279556 -1.140438 1.526798 184 121 100
0.299130 -1.277458 1.526798 149 151 126
0.299130 -1.160012 1.526798 139 151 119
0.318705 -1.257884 1.526798 148 152 129
0.318705 -1.199161 1.526798 145 156 125
0.338279 -1.238310 1.526798 149 155 126
0.338279 -1.218735 1.526798 147 156 124
0.651468 -1.473202 1.526798 255 182 161
0.651468 -1.434053 1.526798 255 214 165
0.671043 -1.492776 1.526798 228 121 92
0.671043 -1.434053 1.526798 255 211 161
0.690617 -1.492776 1.526798 244 132 103
0.690617 -1.414479 1.526798 72 79 68
0.710191 -1.512350 1.526798 80 77 63
0.710191 -1.434053 1.526798 215 173 155
0.729766 -1.512350 1.526798 94 76 69
0.729766 -1.434053 1.526798 116 124 81
0.749340 -1.512350 1.526798 110 76 60
0.749340 -1.434053 1.526798 143 88 68
0.768914 -1.512350 1.526798 136 75 69
0.768914 -1.453627 1.526798 255 170 107
0.788489 -1.512350 1.526798 162 84 70
0.788489 -1.473202 1.526798 255 193 157
0.808063 -1.512350 1.526798 110 78 74
0.808063 -1.473202 1.526798 255 202 155
0.064238 -1.257884 1.546373 55 35 31
0.064238 -1.218735 1.546373 67 33 32
0.083813 -1.297033 1.546373 57 35 28
0.083813 -1.199161 1.546373 55 44 30
0.103387 -1.316607 1.546373 160 121 99
0.103387 -1.160012 1.546373 16 14 13
0.122961 -1.336181 1.546373 172 96 87
0.122961 -1.140438 1.546373 42 40 63
0.142536 -1.336181 1.546373 136 36 22
0.142536 -1.140438 1.546373 42 21 8
0.162110 -1.336181 1.546373 121 46 60
0.162110 -1.140438 1.546373 30 19 16
0.181684 -1.336181 1.546373 142 21 10
0.181684 -1.140438 1.546373 29 19 18
0.201259 -1.336181 1.546373 168 79 99
0.201259 -1.120864 1.546373 129 137 108
0.220833 -1.355756 1.546373 228 157 124
0.220833 -1.120864 1.546373 131 141 113
0.240407 -1.336181 1.546373 255 167 110
0.240407 -1.120864 1.546373 131 133 117
0.259982 -1.316607 1.546373 85 95 75
0.259982 -1.120864 1.546373 133 144 128
0.279556 -1.316607 1.546373 70 86 77
0.279556 -1.140438 1.546373 140 140 119
0.299130 -1.277458 1.546373 153 156 120
0.299130 -1.140438 1.546373 139 153 116
0.318705 -1.257884 1.546373 150 153 132
0.318705 -1.179587 1.546373 143 146 123
0.338279 -1.257884 1.546373 152 164 132
0.338279 -1.238310 1.546373 153 154 132
0.690617 -1.473202 1.546373 255 190 151
0.710191 -1.492776 1.546373 236 143 123
0.710191 -1.453627 1.546373 255 197 161
0.729766 -1.512350 1.546373 136 86 81
0.729766 -1.453627 1.546373 255 206 146
0.749340 -1.512350 1.546373 162 84 70
0.749340 -1.453627 1.546373 214 170 107
0.768914 -1.512350 1.546373 183 94 74
0.768914 -1.453627 1.546373 107 114 68
0.788489 -1.531925 1.546373 67 57 54
0.788489 -1.453627 1.546373 61 75 81
0.808063 -1.531925 1.546373 38 45 42
0.808063 -1.473202 1.546373 197 165 157
0.827637 -1.531925 1.546373 116 91 93
0.827637 -1.473202 1.546373 255 185 124
0.847212 -1.531925 1.546373 132 143 112
0.847212 -1.492776 1.546373 255 180 150
0.866786 -1.512350 1.546373 216 112 90
0.886361 -1.531925 1.546373 108 77 58
0.886361 -1.512350 1.546373 250 122 98
0.064238 -1.257884 1.565947 124 70 57
0.064238 -1.218735 1.565947 92 58 40
0.083813 -1.297033 1.565947 89 46 26
0.083813 -1.199161 1.565947 66 45 27
0.103387 -1.316607 1.565947 148 117 97
0.103387 -1.160012 1.565947 23 17 13
0.122961 -1.316607 1.565947 209 135 101
0.122961 -1.140438 1.565947 39 30 52
0.142536 -1.336181 1.565947 175 102 87
0.142536 -1.140438 1.565947 36 17 19
0.162110 -1.336181 1.565947 142 56 60
0.162110 -1.140438 1.565947 44 25 16
0.181684 -1.336181 1.565947 210 110 80
0.181684 -1.140438 1.565947 39 30 28
0.201259 -1.336181 1.565947 227 148 120
0.201259 -1.140438 1.565947 123 98 88
0.220833 -1.336181 1.565947 255 152 97
0.220833 -1.140438 1.565947 147 112 99
0.240407 -1.336181 1.565947 208 133 83
0.240407 -1.140438 1.565947 135 138 124
0.259982 -1.316607 1.565947 71 85 72
0.259982 -1.140438 1.565947 139 149 114
0.279556 -1.277458 1.565947 153 167 134
0.279556 -1.140438 1.565947 138 144 127
0.299130 -1.257884 1.565947 153 162 132
0.299130 -1.140438 1.565947 138 141 115
0.318705 -1.257884 1.565947 153 153 128
0.318705 -1.160012 1.565947 141 143 126
0.338279 -1.257884 1.565947 154 166 140
0.338279 -1.218735 1.565947 151 152 131
0.729766 -1.492776 1.565947 255 164 141
0.749340 -1.492776 1.565947 255 150 125
0.749340 -1.473202 1.565947 255 196 136
0.768914 -1.512350 1.565947 208 108 97
0.768914 -1.473202 1.565947 197 165 157
0.788489 -1.512350 1.565947 227 120 102
0.788489 -1.473202 1.565947 134 151 124
0.808063 -1.531925 1.565947 116 143 112
0.808063 -1.473202 1.565947 156 154 141
0.827637 -1.531925 1.565947 132 82 58
0.827637 -1.473202 1.565947 173 160 143
0.847212 -1.531925 1.565947 108 77 58
0.847212 -1.492776 1.565947 255 194 160
0.866786 -1.551499 1.565947 134 146 115
0.866786 -1.492776 1.565947 255 190 163
0.886361 -1.551499 1.565947 109 95 61
0.886361 -1.512350 1.565947 255 171 170
0.905935 -1.571073 1.565947 137 71 54
0.905935 -1.512350 1.565947 255 195 162
0.925509 -1.590648 1.565947 106 114 77
0.925509 -1.531925 1.565947 255 180 162
0.945084 -1.571073 1.565947 121 86 95
0.945084 -1.551499 1.565947 253 158 151
0.064238 -1.238310 1.585521 141 88 64
0.064238 -1.199161 1.585521 30 23 13
0.083813 -1.297033 1.585521 175 102 78
0.083813 -1.179587 1.585521 18 15 9
0.103387 -1.316607 1.585521 180 124 96
0.103387 -1.160012 1.585521 30 18 15
0.122961 -1.316607 1.585521 79 63 60
0.122961 -1.140438 1.585521 61 63 57
0.142536 -1.316607 1.585521 43 25 19
0.142536 -1.140438 1.585521 44 42 74
0.162110 -1.316607 1.585521 37 32 27
0.162110 -1.140438 1.585521 54 38 28
0.181684 -1.336181 1.585521 194 126 80
0.181684 -1.140438 1.585521 56 40 52
0.201259 -1.336181 1.585521 151 122 97
0.201259 -1.140438 1.585521 133 135 114
0.220833 -1.336181 1.585521 208 125 78
0.220833 -1.140438 1.585521 135 148 114
0.240407 -1.336181 1.585521 157 97 65
0.240407 -1.297033 1.585521 67 76 59
0.240407 -1.140438 1.585521 138 142 114
0.259982 -1.277458 1.585521 155 153 130
0.259982 -1.140438 1.585521 138 142 112
0.279556 -1.277458 1.585521 154 167 142
0.279556 -1.140438 1.585521 138 150 120
0.299130 -1.257884 1.585521 151 166 132
0.299130 -1.140438 1.585521 141 141 119
0.318705 -1.257884 1.585521 155 157 140
0.318705 -1.179587 1.585521 147 152 121
0.338279 -1.238310 1.585521 154 155 140
0.338279 -1.199161 1.585521 151 163 138
0.788489 -1.512350 1.585521 203 126 111
0.788489 -1.492776 1.585521 255 197 169
0.808063 -1.531925 1.585521 108 72 72
0.808063 -1.492776 1.585521 255 194 160
0.827637 -1.531925 1.585521 133 90 84
0.827637 -1.492776 1.585521 255 183 140
